ply
format ascii 1.0
element vertex 1215
property float x
property float y
property float z
property uchar red
property uchar green
property uchar blue
end_header
0.930649 -0.071588 -5.497987 186 82 35 
0.966443 -0.071588 -5.497987 189 84 36 
1.002237 -0.071588 -5.497987 191 86 37 
1.035714 -0.071429 -5.485714 194 87 39 
1.071429 -0.071429 -5.485714 197 89 40 
1.104677 -0.071269 -5.473497 201 90 41 
1.140312 -0.071269 -5.473497 203 91 41 
1.175947 -0.071269 -5.473497 204 91 42 
1.211581 -0.071269 -5.473497 205 92 42 
1.247216 -0.071269 -5.473497 205 91 41 
1.280000 -0.071111 -5.461334 202 89 39 
1.315556 -0.071111 -5.461334 200 88 38 
1.351111 -0.071111 -5.461334 198 87 37 
1.386667 -0.071111 -5.461334 193 84 35 
1.422222 -0.071111 -5.461334 188 81 32 
1.457778 -0.071111 -5.461334 184 79 31 
1.493333 -0.071111 -5.461334 177 76 30 
1.528889 -0.071111 -5.461334 168 71 27 
1.564444 -0.071111 -5.461334 155 64 25 
1.600000 -0.071111 -5.461334 140 59 23 
1.635556 -0.071111 -5.461334 120 52 22 
1.671111 -0.071111 -5.461334 93 53 32 
1.710468 -0.071269 -5.473497 89 80 69 
1.750000 -0.071429 -5.485714 91 85 78 
1.785714 -0.071429 -5.485714 58 65 61 
0.692308 -0.115385 -5.907692 75 55 34 
0.730769 -0.115385 -5.907692 116 63 34 
0.765550 -0.114833 -5.879426 145 67 32 
0.798100 -0.114014 -5.837530 159 72 31 
0.832151 -0.113475 -5.809929 167 75 32 
0.844037 -0.110092 -5.636697 174 77 33 
0.868778 -0.108597 -5.560181 180 80 34 
0.900901 -0.108108 -5.535135 184 82 34 
0.930649 -0.107383 -5.497987 189 84 36 
0.966443 -0.107383 -5.497987 191 85 37 
1.000000 -0.107143 -5.485714 193 86 38 
1.035714 -0.107143 -5.485714 195 87 40 
1.071429 -0.107143 -5.485714 199 89 41 
1.104677 -0.106904 -5.473497 202 90 42 
1.140312 -0.106904 -5.473497 203 91 42 
1.175947 -0.106904 -5.473497 203 91 42 
1.211581 -0.106904 -5.473497 204 92 43 
1.244444 -0.106667 -5.461334 203 91 41 
1.280000 -0.106667 -5.461334 201 89 38 
1.315556 -0.106667 -5.461334 200 88 38 
1.351111 -0.106667 -5.461334 197 86 36 
1.386667 -0.106667 -5.461334 193 84 34 
1.422222 -0.106667 -5.461334 187 81 32 
1.457778 -0.106667 -5.461334 183 80 31 
1.493333 -0.106667 -5.461334 177 77 30 
1.528889 -0.106667 -5.461334 168 71 27 
1.567929 -0.106904 -5.473497 156 65 25 
1.603563 -0.106904 -5.473497 142 59 23 
1.639198 -0.106904 -5.473497 123 52 22 
1.674833 -0.106904 -5.473497 97 49 26 
1.710468 -0.106904 -5.473497 90 76 63 
1.750000 -0.107143 -5.485714 81 78 70 
1.785714 -0.107143 -5.485714 49 60 54 
0.730769 -0.153846 -5.907692 145 67 31 
0.765550 -0.153110 -5.879426 159 72 31 
0.801909 -0.152745 -5.865394 168 76 32 
0.836105 -0.152019 -5.837530 174 78 33 
0.842105 -0.146453 -5.623799 179 79 34 
0.868778 -0.144796 -5.560181 183 81 35 
0.900901 -0.144144 -5.535135 188 83 36 
0.930649 -0.143177 -5.497987 192 84 36 
0.964286 -0.142857 -5.485714 194 86 38 
1.000000 -0.142857 -5.485714 195 88 40 
1.035714 -0.142857 -5.485714 197 89 40 
1.071429 -0.142857 -5.485714 200 90 41 
1.104677 -0.142539 -5.473497 202 91 42 
1.140312 -0.142539 -5.473497 203 92 43 
1.173333 -0.142222 -5.461334 204 92 42 
1.208889 -0.142222 -5.461334 204 91 42 
1.244444 -0.142222 -5.461334 202 90 40 
1.280000 -0.142222 -5.461334 201 89 39 
1.315556 -0.142222 -5.461334 200 88 38 
1.351111 -0.142222 -5.461334 198 86 36 
1.386667 -0.142222 -5.461334 194 84 34 
1.422222 -0.142222 -5.461334 188 81 32 
1.457778 -0.142222 -5.461334 183 79 31 
1.493333 -0.142222 -5.461334 176 76 30 
1.532294 -0.142539 -5.473497 168 71 28 
1.567929 -0.142539 -5.473497 157 65 25 
1.603563 -0.142539 -5.473497 143 60 23 
1.639198 -0.142539 -5.473497 126 53 21 
1.674833 -0.142539 -5.473497 102 47 23 
1.714286 -0.142857 -5.485714 92 69 54 
1.750000 -0.142857 -5.485714 73 72 62 
1.785714 -0.142857 -5.485714 38 53 47 
0.769231 -0.192308 -5.907692 167 75 32 
0.807692 -0.192308 -5.907692 175 78 33 
0.836105 -0.190024 -5.837530 180 80 34 
0.842105 -0.183066 -5.623799 183 81 35 
0.868778 -0.180995 -5.560181 187 83 35 
0.900901 -0.180180 -5.535135 191 84 37 
0.928571 -0.178571 -5.485714 193 86 37 
0.964286 -0.178571 -5.485714 196 88 38 
1.000000 -0.178571 -5.485714 198 90 40 
1.035714 -0.178571 -5.485714 200 91 42 
1.071429 -0.178571 -5.485714 201 91 43 
1.104677 -0.178174 -5.473497 203 92 43 
1.137778 -0.177778 -5.461334 204 92 43 
1.173333 -0.177778 -5.461334 205 92 42 
1.208889 -0.177778 -5.461334 204 91 41 
1.244444 -0.177778 -5.461334 202 89 38 
1.280000 -0.177778 -5.461334 201 88 38 
1.315556 -0.177778 -5.461334 200 87 38 
1.351111 -0.177778 -5.461334 198 86 36 
1.386667 -0.177778 -5.461334 193 84 34 
1.422222 -0.177778 -5.461334 187 81 32 
1.457778 -0.177778 -5.461334 182 78 31 
1.493333 -0.177778 -5.461334 175 75 30 
1.532294 -0.178174 -5.473497 167 71 28 
1.567929 -0.178174 -5.473497 156 66 26 
1.607143 -0.178571 -5.485714 145 60 23 
1.639198 -0.178174 -5.473497 130 55 21 
1.678571 -0.178571 -5.485714 107 46 21 
1.714286 -0.178571 -5.485714 94 64 45 
1.750000 -0.178571 -5.485714 85 78 68 
0.807692 -0.230769 -5.907692 178 80 35 
0.826291 -0.225352 -5.769014 182 81 35 
0.834467 -0.217687 -5.572789 186 83 36 
0.866817 -0.216704 -5.547630 190 85 37 
0.898876 -0.215730 -5.522697 193 86 38 
0.928571 -0.214286 -5.485714 196 88 38 
0.964286 -0.214286 -5.485714 198 89 39 
1.000000 -0.214286 -5.485714 200 90 40 
1.035714 -0.214286 -5.485714 202 92 42 
1.069042 -0.213808 -5.473497 203 93 44 
1.102222 -0.213333 -5.461334 204 93 43 
1.137778 -0.213333 -5.461334 205 93 43 
1.173333 -0.213333 -5.461334 205 92 43 
1.208889 -0.213333 -5.461334 204 91 41 
1.244444 -0.213333 -5.461334 202 89 39 
1.280000 -0.213333 -5.461334 201 89 38 
1.315556 -0.213333 -5.461334 200 87 37 
1.351111 -0.213333 -5.461334 196 86 36 
1.386667 -0.213333 -5.461334 191 83 34 
1.422222 -0.213333 -5.461334 185 80 32 
1.457778 -0.213333 -5.461334 180 78 31 
1.493333 -0.213333 -5.461334 174 75 29 
1.532294 -0.213808 -5.473497 166 71 28 
1.571429 -0.214286 -5.485714 156 67 26 
1.607143 -0.214286 -5.485714 146 61 23 
1.642857 -0.214286 -5.485714 133 56 22 
1.678571 -0.214286 -5.485714 112 47 21 
1.714286 -0.214286 -5.485714 96 57 36 
1.750000 -0.214286 -5.485714 97 85 73 
0.809639 -0.269880 -5.921928 181 81 36 
0.820513 -0.261072 -5.728672 185 82 36 
0.830700 -0.252822 -5.547630 189 84 37 
0.862921 -0.251685 -5.522697 192 85 38 
0.894855 -0.250559 -5.497987 196 88 39 
0.928571 -0.250000 -5.485714 199 89 39 
0.962138 -0.249443 -5.473497 200 89 40 
0.997773 -0.249443 -5.473497 202 91 41 
1.033408 -0.249443 -5.473497 203 91 42 
1.066667 -0.248889 -5.461334 203 92 44 
1.102222 -0.248889 -5.461334 204 93 44 
1.137778 -0.248889 -5.461334 206 93 44 
1.173333 -0.248889 -5.461334 206 92 43 
1.208889 -0.248889 -5.461334 204 91 41 
1.244444 -0.248889 -5.461334 202 89 39 
1.280000 -0.248889 -5.461334 200 89 39 
1.315556 -0.248889 -5.461334 198 87 37 
1.351111 -0.248889 -5.461334 194 85 36 
1.386667 -0.248889 -5.461334 189 82 33 
1.422222 -0.248889 -5.461334 184 80 32 
1.457778 -0.248889 -5.461334 179 78 31 
1.496659 -0.249443 -5.473497 174 76 30 
1.535714 -0.250000 -5.485714 167 72 28 
1.571429 -0.250000 -5.485714 158 68 27 
1.607143 -0.250000 -5.485714 148 62 25 
1.642857 -0.250000 -5.485714 135 57 23 
1.678571 -0.250000 -5.485714 117 50 21 
1.714286 -0.250000 -5.485714 93 46 24 
0.813559 -0.309927 -5.950605 183 82 36 
0.840095 -0.305489 -5.865394 188 84 36 
0.830700 -0.288939 -5.547630 191 85 37 
0.862921 -0.287640 -5.522697 195 87 38 
0.894855 -0.286353 -5.497987 198 89 39 
0.926503 -0.285078 -5.473497 200 90 41 
0.960000 -0.284444 -5.461334 202 90 41 
0.993348 -0.283814 -5.449224 203 91 42 
1.028825 -0.283814 -5.449224 204 92 43 
1.064302 -0.283814 -5.449224 204 93 44 
1.099778 -0.283814 -5.449224 205 93 44 
1.135255 -0.283814 -5.449224 206 94 44 
1.170732 -0.283814 -5.449224 206 93 43 
1.208889 -0.284444 -5.461334 204 90 40 
1.244444 -0.284444 -5.461334 201 89 39 
1.280000 -0.284444 -5.461334 198 88 39 
1.315556 -0.284444 -5.461334 196 86 37 
1.351111 -0.284444 -5.461334 192 84 35 
1.386667 -0.284444 -5.461334 188 82 33 
1.422222 -0.284444 -5.461334 183 80 32 
1.457778 -0.284444 -5.461334 180 79 32 
1.496659 -0.285078 -5.473497 175 77 31 
1.535714 -0.285714 -5.485714 168 73 29 
1.571429 -0.285714 -5.485714 159 68 27 
1.607143 -0.285714 -5.485714 149 62 25 
1.642857 -0.285714 -5.485714 137 58 23 
1.678571 -0.285714 -5.485714 121 52 22 
1.714286 -0.285714 -5.485714 97 43 20 
3.625000 -0.500000 -9.600000 105 110 95 
3.687500 -0.500000 -9.600000 130 127 114 
3.750000 -0.500000 -9.600000 117 112 102 
3.812500 -0.500000 -9.600000 115 113 102 
3.875000 -0.500000 -9.600000 106 105 91 
3.937500 -0.500000 -9.600000 144 141 119 
4.000000 -0.500000 -9.600000 133 116 103 
0.866817 -0.325056 -5.547630 196 88 38 
0.896861 -0.322870 -5.510314 199 89 40 
0.924444 -0.320000 -5.461334 201 90 42 
0.957871 -0.319290 -5.449224 203 91 43 
0.991150 -0.318584 -5.437168 203 92 42 
1.026549 -0.318584 -5.437168 204 92 43 
1.064302 -0.319290 -5.449224 204 93 43 
1.099778 -0.319290 -5.449224 205 93 44 
1.135255 -0.319290 -5.449224 204 93 44 
1.170732 -0.319290 -5.449224 203 92 43 
1.208889 -0.320000 -5.461334 202 90 40 
1.244444 -0.320000 -5.461334 200 88 39 
1.280000 -0.320000 -5.461334 198 88 38 
1.315556 -0.320000 -5.461334 195 86 36 
1.354120 -0.320713 -5.473497 191 84 35 
1.389755 -0.320713 -5.473497 187 81 33 
1.425390 -0.320713 -5.473497 184 79 32 
1.457778 -0.320000 -5.461334 181 79 31 
1.496659 -0.320713 -5.473497 176 76 30 
1.535714 -0.321429 -5.485714 168 72 29 
1.571429 -0.321429 -5.485714 159 68 27 
1.607143 -0.321429 -5.485714 149 63 25 
1.642857 -0.321429 -5.485714 138 58 23 
1.678571 -0.321429 -5.485714 124 53 21 
1.714286 -0.321429 -5.485714 101 45 19 
3.562500 -0.562500 -9.600000 27 42 26 
3.625000 -0.562500 -9.600000 61 72 54 
3.687500 -0.562500 -9.600000 80 89 70 
3.750000 -0.562500 -9.600000 84 91 75 
3.812500 -0.562500 -9.600000 78 85 70 
3.875000 -0.562500 -9.600000 61 72 53 
3.937500 -0.562500 -9.600000 118 129 99 
4.000000 -0.562500 -9.600000 113 110 92 
4.062500 -0.562500 -9.600000 26 31 21 
0.930649 -0.357942 -5.497987 201 91 42 
0.955752 -0.353982 -5.437168 202 92 43 
0.986784 -0.352423 -5.413216 203 92 43 
1.022026 -0.352423 -5.413216 204 92 43 
1.061947 -0.353982 -5.437168 205 93 44 
1.099778 -0.354767 -5.449224 205 93 43 
1.135255 -0.354767 -5.449224 204 93 43 
1.170732 -0.354767 -5.449224 202 91 42 
1.208889 -0.355556 -5.461334 200 88 39 
1.244444 -0.355556 -5.461334 198 88 38 
1.282851 -0.356347 -5.473497 196 87 37 
1.318485 -0.356347 -5.473497 194 86 36 
1.354120 -0.356347 -5.473497 191 84 35 
1.389755 -0.356347 -5.473497 187 81 33 
1.425390 -0.356347 -5.473497 184 79 31 
1.461025 -0.356347 -5.473497 180 79 31 
1.496659 -0.356347 -5.473497 175 76 30 
1.532294 -0.356347 -5.473497 168 72 29 
1.571429 -0.357143 -5.485714 159 68 27 
1.607143 -0.357143 -5.485714 150 63 24 
1.642857 -0.357143 -5.485714 140 59 22 
1.678571 -0.357143 -5.485714 126 54 21 
1.714286 -0.357143 -5.485714 106 46 19 
3.562500 -0.625000 -9.600000 27 31 19 
3.625000 -0.625000 -9.600000 46 50 30 
3.687500 -0.625000 -9.600000 78 77 52 
3.750000 -0.625000 -9.600000 67 66 46 
3.812500 -0.625000 -9.600000 45 49 31 
3.875000 -0.625000 -9.600000 52 56 30 
3.937500 -0.625000 -9.600000 120 130 82 
4.000000 -0.625000 -9.600000 102 97 75 
4.062500 -0.625000 -9.600000 27 26 18 
4.125000 -0.625000 -9.600000 20 23 16 
0.943231 -0.384279 -5.365939 202 92 44 
0.978166 -0.384279 -5.365939 203 93 44 
1.019780 -0.386813 -5.401319 204 93 44 
1.057269 -0.387665 -5.413216 204 93 44 
1.099778 -0.390244 -5.449224 204 93 43 
1.135255 -0.390244 -5.449224 203 92 42 
1.173333 -0.391111 -5.461334 201 90 40 
1.208889 -0.391111 -5.461334 199 88 38 
1.247216 -0.391982 -5.473497 197 88 38 
1.282851 -0.391982 -5.473497 194 86 37 
1.321429 -0.392857 -5.485714 192 85 36 
1.357143 -0.392857 -5.485714 189 83 35 
1.392857 -0.392857 -5.485714 186 81 32 
1.425390 -0.391982 -5.473497 183 79 31 
1.461025 -0.391982 -5.473497 179 78 31 
1.496659 -0.391982 -5.473497 176 76 30 
1.532294 -0.391982 -5.473497 169 72 28 
1.571429 -0.392857 -5.485714 160 68 28 
1.607143 -0.392857 -5.485714 152 64 25 
1.642857 -0.392857 -5.485714 141 59 23 
1.674833 -0.391982 -5.473497 128 55 22 
1.710468 -0.391982 -5.473497 111 47 20 
3.562500 -0.687500 -9.600000 77 45 41 
3.625000 -0.687500 -9.600000 86 54 46 
3.687500 -0.687500 -9.600000 103 69 55 
3.750000 -0.687500 -9.600000 103 69 55 
3.812500 -0.687500 -9.600000 90 56 45 
3.875000 -0.687500 -9.600000 89 56 42 
3.937500 -0.687500 -9.600000 120 92 67 
4.000000 -0.687500 -9.600000 108 74 62 
4.062500 -0.687500 -9.600000 75 43 39 
4.125000 -0.687500 -9.600000 70 38 36 
4.187500 -0.687500 -9.600000 50 25 21 
0.939130 -0.417391 -5.342609 202 93 44 
0.973913 -0.417391 -5.342609 203 93 45 
1.013100 -0.419214 -5.365939 203 93 45 
1.054945 -0.421978 -5.401319 203 92 44 
1.099778 -0.425721 -5.449224 203 92 43 
1.137778 -0.426667 -5.461334 202 91 41 
1.175947 -0.427617 -5.473497 199 89 39 
1.214286 -0.428571 -5.485714 198 88 38 
1.250000 -0.428571 -5.485714 196 87 38 
1.285714 -0.428571 -5.485714 194 85 37 
1.321429 -0.428571 -5.485714 191 84 36 
1.357143 -0.428571 -5.485714 188 83 35 
1.392857 -0.428571 -5.485714 185 80 33 
1.428571 -0.428571 -5.485714 182 79 32 
1.461025 -0.427617 -5.473497 179 78 31 
1.496659 -0.427617 -5.473497 175 76 30 
1.532294 -0.427617 -5.473497 169 72 27 
1.571429 -0.428571 -5.485714 161 69 27 
1.607143 -0.428571 -5.485714 153 65 25 
1.642857 -0.428571 -5.485714 143 60 23 
1.674833 -0.427617 -5.473497 131 55 21 
1.710468 -0.427617 -5.473497 115 48 19 
3.500000 -0.750000 -9.600000 91 56 50 
3.562500 -0.750000 -9.600000 96 58 53 
3.625000 -0.750000 -9.600000 105 65 58 
3.687500 -0.750000 -9.600000 111 65 58 
3.750000 -0.750000 -9.600000 108 62 55 
3.812500 -0.750000 -9.600000 103 57 52 
3.875000 -0.750000 -9.600000 99 54 47 
3.937500 -0.750000 -9.600000 118 76 64 
4.000000 -0.750000 -9.600000 105 63 56 
4.062500 -0.750000 -9.600000 90 53 46 
4.125000 -0.750000 -9.600000 84 48 44 
4.187500 -0.750000 -9.600000 58 27 23 
4.250000 -0.750000 -9.600000 20 25 12 
0.939130 -0.452174 -5.342609 200 92 45 
0.971800 -0.451193 -5.331020 202 92 45 
1.004329 -0.450216 -5.319481 203 93 45 
1.048035 -0.454148 -5.365939 202 92 44 
1.099778 -0.461197 -5.449224 202 92 44 
1.137778 -0.462222 -5.461334 200 90 42 
1.178571 -0.464286 -5.485714 198 89 40 
1.214286 -0.464286 -5.485714 196 88 39 
1.250000 -0.464286 -5.485714 196 86 37 
1.285714 -0.464286 -5.485714 194 85 36 
1.324385 -0.465324 -5.497987 191 84 36 
1.360179 -0.465324 -5.497987 188 82 34 
1.395973 -0.465324 -5.497987 185 80 32 
1.428571 -0.464286 -5.485714 182 79 32 
1.461025 -0.463252 -5.473497 178 78 32 
1.496659 -0.463252 -5.473497 174 76 31 
1.535714 -0.464286 -5.485714 168 72 28 
1.571429 -0.464286 -5.485714 161 69 26 
1.607143 -0.464286 -5.485714 154 65 25 
1.642857 -0.464286 -5.485714 145 61 23 
1.678571 -0.464286 -5.485714 134 56 22 
1.714286 -0.464286 -5.485714 119 49 20 
3.500000 -0.812500 -9.600000 39 33 23 
3.562500 -0.812500 -9.600000 64 44 29 
3.625000 -0.812500 -9.600000 89 58 35 
3.687500 -0.812500 -9.600000 105 67 41 
3.750000 -0.812500 -9.600000 103 64 40 
3.812500 -0.812500 -9.600000 92 56 35 
3.875000 -0.812500 -9.600000 90 56 33 
3.937500 -0.812500 -9.600000 103 69 44 
4.000000 -0.812500 -9.600000 83 53 36 
4.062500 -0.812500 -9.600000 58 41 29 
4.125000 -0.812500 -9.600000 34 29 21 
4.187500 -0.812500 -9.600000 25 25 15 
4.250000 -0.812500 -9.600000 13 28 12 
4.312500 -0.812500 -9.600000 7 25 11 
0.967603 -0.483801 -5.307992 201 96 60 
1.000000 -0.482759 -5.296552 198 91 47 
1.038961 -0.484848 -5.319481 199 92 45 
1.094923 -0.494481 -5.425166 200 92 44 
1.140312 -0.498886 -5.473497 199 90 42 
1.178571 -0.500000 -5.485714 197 89 40 
1.214286 -0.500000 -5.485714 196 87 38 
1.250000 -0.500000 -5.485714 195 86 36 
1.288591 -0.501119 -5.497987 193 85 36 
1.324385 -0.501119 -5.497987 191 84 35 
1.360179 -0.501119 -5.497987 188 82 34 
1.395973 -0.501119 -5.497987 185 80 32 
1.428571 -0.500000 -5.485714 182 79 32 
1.461025 -0.498886 -5.473497 178 78 33 
1.496659 -0.498886 -5.473497 173 76 32 
1.535714 -0.500000 -5.485714 168 72 29 
1.571429 -0.500000 -5.485714 161 69 27 
1.607143 -0.500000 -5.485714 153 65 25 
1.642857 -0.500000 -5.485714 145 61 23 
1.678571 -0.500000 -5.485714 136 56 22 
3.437500 -0.875000 -9.600000 14 27 14 
3.500000 -0.875000 -9.600000 35 38 16 
3.562500 -0.875000 -9.600000 79 60 23 
3.625000 -0.875000 -9.600000 109 76 29 
3.687500 -0.875000 -9.600000 110 73 31 
3.750000 -0.875000 -9.600000 96 61 30 
3.812500 -0.875000 -9.600000 89 56 27 
3.875000 -0.875000 -9.600000 86 56 27 
3.937500 -0.875000 -9.600000 93 63 33 
4.000000 -0.875000 -9.600000 85 58 33 
4.062500 -0.875000 -9.600000 44 37 21 
4.125000 -0.875000 -9.600000 11 22 13 
4.187500 -0.875000 -9.600000 8 25 12 
4.250000 -0.875000 -9.600000 7 28 12 
4.312500 -0.875000 -9.600000 7 25 11 
4.375000 -0.875000 -9.600000 8 23 12 
1.000000 -0.517241 -5.296552 198 102 66 
1.059603 -0.529801 -5.425166 194 92 52 
1.102222 -0.533333 -5.461334 192 89 45 
1.142857 -0.535714 -5.485714 192 88 41 
1.178571 -0.535714 -5.485714 193 88 40 
1.217002 -0.536913 -5.497987 194 87 39 
1.252796 -0.536913 -5.497987 193 86 37 
1.288591 -0.536913 -5.497987 192 85 36 
1.327354 -0.538117 -5.510314 190 84 36 
1.363229 -0.538117 -5.510314 187 82 33 
1.395973 -0.536913 -5.497987 183 80 32 
1.428571 -0.535714 -5.485714 181 79 32 
1.457778 -0.533333 -5.461334 178 78 32 
1.493333 -0.533333 -5.461334 173 76 31 
1.535714 -0.535714 -5.485714 168 73 29 
1.571429 -0.535714 -5.485714 161 69 28 
1.607143 -0.535714 -5.485714 154 65 25 
1.642857 -0.535714 -5.485714 146 61 23 
1.678571 -0.535714 -5.485714 137 57 21 
3.375000 -0.937500 -9.600000 9 31 12 
3.437500 -0.937500 -9.600000 34 41 13 
3.500000 -0.937500 -9.600000 98 79 25 
3.562500 -0.937500 -9.600000 127 98 28 
3.625000 -0.937500 -9.600000 134 100 31 
3.687500 -0.937500 -9.600000 106 70 27 
3.750000 -0.937500 -9.600000 71 43 21 
3.812500 -0.937500 -9.600000 63 40 20 
3.875000 -0.937500 -9.600000 68 46 21 
3.937500 -0.937500 -9.600000 86 59 31 
4.000000 -0.937500 -9.600000 85 57 33 
4.062500 -0.937500 -9.600000 39 33 18 
4.125000 -0.937500 -9.600000 10 22 12 
4.187500 -0.937500 -9.600000 8 25 13 
4.250000 -0.937500 -9.600000 7 28 12 
4.312500 -0.937500 -9.600000 7 25 11 
4.375000 -0.937500 -9.600000 7 23 11 
4.437500 -0.937500 -9.600000 35 44 30 
1.145414 -0.572707 -5.497987 188 95 55 
1.181208 -0.572707 -5.497987 188 88 47 
1.219731 -0.573991 -5.510314 187 85 42 
1.252796 -0.572707 -5.497987 187 84 39 
1.291480 -0.573991 -5.510314 187 84 37 
1.327354 -0.573991 -5.510314 187 84 37 
1.363229 -0.573991 -5.510314 184 81 34 
1.395973 -0.572707 -5.497987 182 79 32 
1.428571 -0.571429 -5.485714 180 78 32 
1.457778 -0.568889 -5.461334 177 78 32 
1.493333 -0.568889 -5.461334 173 76 31 
1.535714 -0.571429 -5.485714 167 72 29 
1.571429 -0.571429 -5.485714 162 69 28 
1.607143 -0.571429 -5.485714 156 65 25 
1.642857 -0.571429 -5.485714 148 62 23 
1.678571 -0.571429 -5.485714 139 58 21 
3.312500 -1.000000 -9.600000 8 30 12 
3.375000 -1.000000 -9.600000 9 31 11 
3.437500 -1.000000 -9.600000 45 51 14 
3.500000 -1.000000 -9.600000 121 97 28 
3.562500 -1.000000 -9.600000 131 101 27 
3.625000 -1.000000 -9.600000 127 95 28 
3.687500 -1.000000 -9.600000 95 63 26 
3.750000 -1.000000 -9.600000 54 34 20 
3.812500 -1.000000 -9.600000 41 29 18 
3.875000 -1.000000 -9.600000 51 38 21 
3.937500 -1.000000 -9.600000 80 59 36 
4.000000 -1.000000 -9.600000 79 55 35 
4.062500 -1.000000 -9.600000 34 30 17 
4.125000 -1.000000 -9.600000 9 22 12 
4.187500 -1.000000 -9.600000 8 26 13 
4.250000 -1.000000 -9.600000 7 29 12 
4.312500 -1.000000 -9.600000 6 25 11 
4.375000 -1.000000 -9.600000 7 23 11 
4.437500 -1.000000 -9.600000 34 43 29 
4.500000 -1.000000 -9.600000 64 61 47 
1.186517 -0.611236 -5.522697 177 117 83 
1.222472 -0.611236 -5.522697 180 104 68 
1.258427 -0.611236 -5.522697 179 93 53 
1.294382 -0.611236 -5.522697 179 87 45 
1.330337 -0.611236 -5.522697 179 82 40 
1.363229 -0.609865 -5.510314 177 80 36 
1.395973 -0.608501 -5.497987 176 78 33 
1.428571 -0.607143 -5.485714 176 78 32 
1.457778 -0.604444 -5.461334 176 78 32 
1.493333 -0.604444 -5.461334 172 76 32 
1.535714 -0.607143 -5.485714 166 72 30 
1.571429 -0.607143 -5.485714 161 69 28 
1.607143 -0.607143 -5.485714 156 66 26 
1.642857 -0.607143 -5.485714 149 62 23 
1.678571 -0.607143 -5.485714 140 58 21 
3.250000 -1.062500 -9.600000 30 32 16 
3.312500 -1.062500 -9.600000 9 30 11 
3.375000 -1.062500 -9.600000 9 31 12 
3.437500 -1.062500 -9.600000 40 48 15 
3.500000 -1.062500 -9.600000 92 79 25 
3.562500 -1.062500 -9.600000 90 70 21 
3.625000 -1.062500 -9.600000 87 62 21 
3.687500 -1.062500 -9.600000 81 51 24 
3.750000 -1.062500 -9.600000 76 53 34 
3.812500 -1.062500 -9.600000 76 54 41 
3.875000 -1.062500 -9.600000 64 46 28 
3.937500 -1.062500 -9.600000 76 58 37 
4.000000 -1.062500 -9.600000 65 48 33 
4.062500 -1.062500 -9.600000 23 25 15 
4.125000 -1.062500 -9.600000 9 23 13 
4.187500 -1.062500 -9.600000 8 25 13 
4.250000 -1.062500 -9.600000 7 29 13 
4.312500 -1.062500 -9.600000 6 25 12 
4.375000 -1.062500 -9.600000 7 22 11 
4.437500 -1.062500 -9.600000 32 42 28 
4.500000 -1.062500 -9.600000 63 61 47 
4.562500 -1.062500 -9.600000 64 60 46 
1.227991 -0.650113 -5.547630 156 128 104 
1.258427 -0.647191 -5.522697 151 114 87 
1.294382 -0.647191 -5.522697 163 114 83 
1.330337 -0.647191 -5.522697 169 107 73 
1.366292 -0.647191 -5.522697 166 94 57 
1.395973 -0.644295 -5.497987 165 87 47 
1.428571 -0.642857 -5.485714 168 85 45 
1.461025 -0.641425 -5.473497 170 82 40 
1.496659 -0.641425 -5.473497 168 76 36 
1.535714 -0.642857 -5.485714 163 72 31 
1.571429 -0.642857 -5.485714 159 69 29 
1.607143 -0.642857 -5.485714 155 66 26 
1.642857 -0.642857 -5.485714 149 63 24 
3.187500 -1.125000 -9.600000 83 40 19 
3.250000 -1.125000 -9.600000 49 37 20 
3.312500 -1.125000 -9.600000 18 33 15 
3.375000 -1.125000 -9.600000 10 31 13 
3.437500 -1.125000 -9.600000 18 31 14 
3.500000 -1.125000 -9.600000 27 35 16 
3.562500 -1.125000 -9.600000 38 33 16 
3.625000 -1.125000 -9.600000 46 33 16 
3.687500 -1.125000 -9.600000 58 41 23 
3.750000 -1.125000 -9.600000 90 71 49 
3.812500 -1.125000 -9.600000 112 83 66 
3.875000 -1.125000 -9.600000 73 47 31 
3.937500 -1.125000 -9.600000 54 39 24 
4.000000 -1.125000 -9.600000 53 40 27 
4.062500 -1.125000 -9.600000 18 22 14 
4.125000 -1.125000 -9.600000 8 22 13 
4.187500 -1.125000 -9.600000 8 25 13 
4.250000 -1.125000 -9.600000 7 28 12 
4.312500 -1.125000 -9.600000 6 25 11 
4.375000 -1.125000 -9.600000 6 22 11 
4.437500 -1.125000 -9.600000 30 41 26 
4.500000 -1.125000 -9.600000 62 60 46 
4.562500 -1.125000 -9.600000 62 58 44 
4.625000 -1.125000 -9.600000 57 55 42 
4.687500 -1.125000 -9.600000 57 54 41 
1.300226 -0.686230 -5.547630 145 131 109 
1.333333 -0.684685 -5.535135 151 129 107 
1.369369 -0.684685 -5.535135 132 103 80 
1.399103 -0.681614 -5.510314 122 89 63 
1.428571 -0.678571 -5.485714 134 92 62 
1.461025 -0.677060 -5.473497 146 91 57 
1.496659 -0.677060 -5.473497 153 86 50 
1.535714 -0.678571 -5.485714 154 79 42 
1.571429 -0.678571 -5.485714 152 73 35 
3.187500 -1.187500 -9.600000 93 43 21 
3.250000 -1.187500 -9.600000 73 44 23 
3.312500 -1.187500 -9.600000 45 42 22 
3.375000 -1.187500 -9.600000 14 31 13 
3.437500 -1.187500 -9.600000 9 25 13 
3.500000 -1.187500 -9.600000 11 24 14 
3.562500 -1.187500 -9.600000 22 23 14 
3.625000 -1.187500 -9.600000 28 23 14 
3.687500 -1.187500 -9.600000 57 46 30 
3.750000 -1.187500 -9.600000 108 85 62 
3.812500 -1.187500 -9.600000 116 86 68 
3.875000 -1.187500 -9.600000 83 54 38 
3.937500 -1.187500 -9.600000 55 38 24 
4.000000 -1.187500 -9.600000 41 32 21 
4.062500 -1.187500 -9.600000 16 22 14 
4.125000 -1.187500 -9.600000 8 22 13 
4.187500 -1.187500 -9.600000 7 24 12 
4.250000 -1.187500 -9.600000 6 28 12 
4.312500 -1.187500 -9.600000 6 24 11 
4.375000 -1.187500 -9.600000 6 21 10 
4.437500 -1.187500 -9.600000 29 40 25 
4.500000 -1.187500 -9.600000 60 58 44 
4.562500 -1.187500 -9.600000 59 56 43 
4.625000 -1.187500 -9.600000 58 55 42 
4.687500 -1.187500 -9.600000 53 51 39 
4.750000 -1.187500 -9.600000 52 51 38 
1.062500 -1.250000 -9.600000 86 83 68 
1.372460 -0.722348 -5.547630 108 93 80 
1.405405 -0.720721 -5.535135 71 65 50 
1.434978 -0.717489 -5.510314 73 65 50 
1.464286 -0.714286 -5.485714 79 67 49 
3.125000 -1.250000 -9.600000 106 55 26 
3.187500 -1.250000 -9.600000 100 52 27 
3.250000 -1.250000 -9.600000 82 45 23 
3.312500 -1.250000 -9.600000 49 40 20 
3.375000 -1.250000 -9.600000 14 31 13 
3.437500 -1.250000 -9.600000 9 25 14 
3.500000 -1.250000 -9.600000 12 24 14 
3.562500 -1.250000 -9.600000 31 27 16 
3.625000 -1.250000 -9.600000 46 30 18 
3.687500 -1.250000 -9.600000 59 43 27 
3.750000 -1.250000 -9.600000 88 64 43 
3.812500 -1.250000 -9.600000 88 61 42 
3.875000 -1.250000 -9.600000 66 44 28 
3.937500 -1.250000 -9.600000 51 37 23 
4.000000 -1.250000 -9.600000 41 32 22 
4.062500 -1.250000 -9.600000 19 23 15 
4.125000 -1.250000 -9.600000 9 22 13 
4.187500 -1.250000 -9.600000 7 23 12 
4.250000 -1.250000 -9.600000 6 26 12 
4.312500 -1.250000 -9.600000 6 23 11 
4.375000 -1.250000 -9.600000 6 21 10 
4.437500 -1.250000 -9.600000 27 38 24 
4.500000 -1.250000 -9.600000 55 55 41 
4.562500 -1.250000 -9.600000 56 54 41 
4.625000 -1.250000 -9.600000 55 53 41 
4.687500 -1.250000 -9.600000 54 53 41 
4.750000 -1.250000 -9.600000 55 53 41 
4.812500 -1.250000 -9.600000 54 52 39 
4.875000 -1.250000 -9.600000 56 54 41 
1.000000 -1.312500 -9.600000 140 128 109 
1.062500 -1.312500 -9.600000 120 108 92 
1.125000 -1.312500 -9.600000 109 99 85 
1.187500 -1.312500 -9.600000 92 85 71 
1.250000 -1.312500 -9.600000 93 91 72 
1.312500 -1.312500 -9.600000 112 104 86 
1.375000 -1.312500 -9.600000 95 87 71 
3.062500 -1.312500 -9.600000 62 43 25 
3.125000 -1.312500 -9.600000 67 47 27 
3.187500 -1.312500 -9.600000 63 46 27 
3.250000 -1.312500 -9.600000 42 36 18 
3.312500 -1.312500 -9.600000 21 33 14 
3.375000 -1.312500 -9.600000 9 31 13 
3.437500 -1.312500 -9.600000 10 27 14 
3.500000 -1.312500 -9.600000 12 25 14 
3.562500 -1.312500 -9.600000 38 31 19 
3.625000 -1.312500 -9.600000 60 38 25 
3.687500 -1.312500 -9.600000 73 49 31 
3.750000 -1.312500 -9.600000 81 53 35 
3.812500 -1.312500 -9.600000 73 44 29 
3.875000 -1.312500 -9.600000 64 40 25 
3.937500 -1.312500 -9.600000 72 52 32 
4.000000 -1.312500 -9.600000 67 47 31 
4.062500 -1.312500 -9.600000 29 27 16 
4.125000 -1.312500 -9.600000 10 22 13 
4.187500 -1.312500 -9.600000 7 23 12 
4.250000 -1.312500 -9.600000 6 25 11 
4.312500 -1.312500 -9.600000 6 22 11 
4.375000 -1.312500 -9.600000 6 19 10 
4.437500 -1.312500 -9.600000 22 33 20 
4.500000 -1.312500 -9.600000 48 49 36 
4.562500 -1.312500 -9.600000 53 52 39 
4.625000 -1.312500 -9.600000 57 55 42 
4.687500 -1.312500 -9.600000 59 57 44 
4.750000 -1.312500 -9.600000 60 56 44 
4.812500 -1.312500 -9.600000 57 54 42 
4.875000 -1.312500 -9.600000 55 53 41 
4.937500 -1.312500 -9.600000 56 54 42 
1.000000 -1.375000 -9.600000 131 119 100 
1.062500 -1.375000 -9.600000 109 101 81 
1.125000 -1.375000 -9.600000 94 88 69 
1.187500 -1.375000 -9.600000 87 82 62 
1.250000 -1.375000 -9.600000 84 80 60 
1.312500 -1.375000 -9.600000 82 77 58 
1.375000 -1.375000 -9.600000 79 74 55 
1.437500 -1.375000 -9.600000 76 71 53 
1.500000 -1.375000 -9.600000 72 68 50 
1.562500 -1.375000 -9.600000 69 65 48 
1.625000 -1.375000 -9.600000 70 66 48 
1.687500 -1.375000 -9.600000 70 67 49 
3.000000 -1.375000 -9.600000 31 32 23 
3.062500 -1.375000 -9.600000 36 36 25 
3.125000 -1.375000 -9.600000 42 40 28 
3.187500 -1.375000 -9.600000 32 35 22 
3.250000 -1.375000 -9.600000 13 29 13 
3.312500 -1.375000 -9.600000 8 31 13 
3.375000 -1.375000 -9.600000 8 33 13 
3.437500 -1.375000 -9.600000 8 32 13 
3.500000 -1.375000 -9.600000 10 33 14 
3.562500 -1.375000 -9.600000 17 39 16 
3.625000 -1.375000 -9.600000 32 55 25 
3.687500 -1.375000 -9.600000 48 73 34 
3.750000 -1.375000 -9.600000 52 76 37 
3.812500 -1.375000 -9.600000 45 64 31 
3.875000 -1.375000 -9.600000 43 62 30 
3.937500 -1.375000 -9.600000 51 78 36 
4.000000 -1.375000 -9.600000 39 65 29 
4.062500 -1.375000 -9.600000 15 36 15 
4.125000 -1.375000 -9.600000 8 29 13 
4.187500 -1.375000 -9.600000 7 27 12 
4.250000 -1.375000 -9.600000 6 25 12 
4.312500 -1.375000 -9.600000 6 21 11 
4.375000 -1.375000 -9.600000 6 19 10 
4.437500 -1.375000 -9.600000 16 26 16 
4.500000 -1.375000 -9.600000 31 35 23 
4.562500 -1.375000 -9.600000 36 38 26 
4.625000 -1.375000 -9.600000 42 43 29 
4.687500 -1.375000 -9.600000 48 48 34 
4.750000 -1.375000 -9.600000 52 52 37 
4.812500 -1.375000 -9.600000 57 55 41 
4.875000 -1.375000 -9.600000 57 55 42 
4.937500 -1.375000 -9.600000 58 55 43 
5.000000 -1.375000 -9.600000 60 57 44 
1.000000 -1.437500 -9.600000 98 90 72 
1.062500 -1.437500 -9.600000 75 71 53 
1.125000 -1.437500 -9.600000 68 65 47 
1.187500 -1.437500 -9.600000 69 65 47 
1.250000 -1.437500 -9.600000 71 67 48 
1.312500 -1.437500 -9.600000 72 67 48 
1.375000 -1.437500 -9.600000 70 66 47 
1.437500 -1.437500 -9.600000 70 66 47 
1.500000 -1.437500 -9.600000 68 64 46 
1.562500 -1.437500 -9.600000 67 62 44 
1.625000 -1.437500 -9.600000 66 62 44 
1.687500 -1.437500 -9.600000 66 62 44 
1.750000 -1.437500 -9.600000 67 62 45 
2.937500 -1.437500 -9.600000 51 48 37 
3.000000 -1.437500 -9.600000 47 46 34 
3.062500 -1.437500 -9.600000 44 43 31 
3.125000 -1.437500 -9.600000 42 42 30 
3.187500 -1.437500 -9.600000 33 37 25 
3.250000 -1.437500 -9.600000 15 30 16 
3.312500 -1.437500 -9.600000 11 31 14 
3.375000 -1.437500 -9.600000 11 34 14 
3.437500 -1.437500 -9.600000 12 35 15 
3.500000 -1.437500 -9.600000 12 37 16 
3.562500 -1.437500 -9.600000 14 44 19 
3.625000 -1.437500 -9.600000 27 65 29 
3.687500 -1.437500 -9.600000 50 94 47 
3.750000 -1.437500 -9.600000 63 104 61 
3.812500 -1.437500 -9.600000 45 80 42 
3.875000 -1.437500 -9.600000 40 76 36 
3.937500 -1.437500 -9.600000 66 110 61 
4.000000 -1.437500 -9.600000 54 92 54 
4.062500 -1.437500 -9.600000 16 43 20 
4.125000 -1.437500 -9.600000 10 32 15 
4.187500 -1.437500 -9.600000 9 28 13 
4.250000 -1.437500 -9.600000 8 25 13 
4.312500 -1.437500 -9.600000 7 21 12 
4.375000 -1.437500 -9.600000 8 19 11 
4.437500 -1.437500 -9.600000 18 27 17 
4.500000 -1.437500 -9.600000 31 35 23 
4.562500 -1.437500 -9.600000 36 38 26 
4.625000 -1.437500 -9.600000 41 41 29 
4.687500 -1.437500 -9.600000 43 43 30 
4.750000 -1.437500 -9.600000 46 46 32 
4.812500 -1.437500 -9.600000 52 50 36 
4.875000 -1.437500 -9.600000 56 53 39 
4.937500 -1.437500 -9.600000 57 53 40 
5.000000 -1.437500 -9.600000 57 55 40 
5.062500 -1.437500 -9.600000 61 58 44 
5.125000 -1.437500 -9.600000 64 60 46 
1.000000 -1.500000 -9.600000 65 62 44 
1.062500 -1.500000 -9.600000 56 54 37 
1.125000 -1.500000 -9.600000 55 54 36 
1.187500 -1.500000 -9.600000 56 55 37 
1.250000 -1.500000 -9.600000 58 56 38 
1.312500 -1.500000 -9.600000 59 57 39 
1.375000 -1.500000 -9.600000 58 55 37 
1.437500 -1.500000 -9.600000 57 55 37 
1.500000 -1.500000 -9.600000 56 54 36 
1.562500 -1.500000 -9.600000 55 54 36 
1.625000 -1.500000 -9.600000 54 53 36 
1.687500 -1.500000 -9.600000 51 50 34 
1.750000 -1.500000 -9.600000 51 51 34 
1.812500 -1.500000 -9.600000 54 53 35 
1.875000 -1.500000 -9.600000 55 54 36 
1.937500 -1.500000 -9.600000 54 53 35 
2.000000 -1.500000 -9.600000 53 52 34 
2.062500 -1.500000 -9.600000 53 52 34 
2.125000 -1.500000 -9.600000 53 51 34 
2.187500 -1.500000 -9.600000 53 51 34 
2.250000 -1.500000 -9.600000 52 51 34 
2.312500 -1.500000 -9.600000 52 52 35 
2.375000 -1.500000 -9.600000 43 43 29 
2.687500 -1.500000 -9.600000 55 53 37 
2.750000 -1.500000 -9.600000 58 56 39 
2.812500 -1.500000 -9.600000 61 58 41 
2.875000 -1.500000 -9.600000 61 58 41 
2.937500 -1.500000 -9.600000 60 57 41 
3.000000 -1.500000 -9.600000 59 56 40 
3.062500 -1.500000 -9.600000 57 55 38 
3.125000 -1.500000 -9.600000 54 52 36 
3.187500 -1.500000 -9.600000 47 46 32 
3.250000 -1.500000 -9.600000 34 38 24 
3.312500 -1.500000 -9.600000 26 34 20 
3.375000 -1.500000 -9.600000 28 37 22 
3.437500 -1.500000 -9.600000 32 41 25 
3.500000 -1.500000 -9.600000 36 44 28 
3.562500 -1.500000 -9.600000 42 52 33 
3.625000 -1.500000 -9.600000 57 69 44 
3.687500 -1.500000 -9.600000 95 112 78 
3.750000 -1.500000 -9.600000 131 145 115 
3.812500 -1.500000 -9.600000 92 97 73 
3.875000 -1.500000 -9.600000 69 80 50 
3.937500 -1.500000 -9.600000 111 133 90 
4.000000 -1.500000 -9.600000 105 115 86 
4.062500 -1.500000 -9.600000 45 51 32 
4.125000 -1.500000 -9.600000 28 36 22 
4.187500 -1.500000 -9.600000 20 29 17 
4.250000 -1.500000 -9.600000 23 30 18 
4.312500 -1.500000 -9.600000 24 29 18 
4.375000 -1.500000 -9.600000 26 30 19 
4.437500 -1.500000 -9.600000 35 37 24 
4.500000 -1.500000 -9.600000 45 46 30 
4.562500 -1.500000 -9.600000 51 50 34 
4.625000 -1.500000 -9.600000 56 54 36 
4.687500 -1.500000 -9.600000 56 54 37 
4.750000 -1.500000 -9.600000 56 53 37 
4.812500 -1.500000 -9.600000 54 51 35 
4.875000 -1.500000 -9.600000 53 49 33 
4.937500 -1.500000 -9.600000 53 49 33 
5.000000 -1.500000 -9.600000 53 51 33 
5.062500 -1.500000 -9.600000 57 54 37 
5.125000 -1.500000 -9.600000 59 56 40 
5.187500 -1.500000 -9.600000 61 58 42 
1.000000 -1.562500 -9.600000 40 39 24 
1.062500 -1.562500 -9.600000 37 37 22 
1.125000 -1.562500 -9.600000 37 36 22 
1.187500 -1.562500 -9.600000 36 36 22 
1.250000 -1.562500 -9.600000 36 37 21 
1.312500 -1.562500 -9.600000 36 37 22 
1.375000 -1.562500 -9.600000 36 37 22 
1.437500 -1.562500 -9.600000 36 37 22 
1.500000 -1.562500 -9.600000 36 36 21 
1.562500 -1.562500 -9.600000 36 36 21 
1.625000 -1.562500 -9.600000 36 36 22 
1.687500 -1.562500 -9.600000 34 34 20 
1.750000 -1.562500 -9.600000 33 33 19 
1.812500 -1.562500 -9.600000 37 36 21 
1.875000 -1.562500 -9.600000 38 37 22 
1.937500 -1.562500 -9.600000 37 36 21 
2.000000 -1.562500 -9.600000 37 36 21 
2.062500 -1.562500 -9.600000 37 36 20 
2.125000 -1.562500 -9.600000 36 35 20 
2.187500 -1.562500 -9.600000 36 34 20 
2.250000 -1.562500 -9.600000 35 34 20 
2.312500 -1.562500 -9.600000 35 35 21 
2.375000 -1.562500 -9.600000 33 32 20 
2.437500 -1.562500 -9.600000 32 32 18 
2.500000 -1.562500 -9.600000 43 39 23 
2.562500 -1.562500 -9.600000 55 47 28 
2.625000 -1.562500 -9.600000 61 52 31 
2.687500 -1.562500 -9.600000 62 53 32 
2.750000 -1.562500 -9.600000 64 55 32 
2.812500 -1.562500 -9.600000 65 55 33 
2.875000 -1.562500 -9.600000 64 55 33 
2.937500 -1.562500 -9.600000 64 55 33 
3.000000 -1.562500 -9.600000 63 55 33 
3.062500 -1.562500 -9.600000 62 54 32 
3.125000 -1.562500 -9.600000 62 54 32 
3.187500 -1.562500 -9.600000 61 53 31 
3.250000 -1.562500 -9.600000 59 52 30 
3.312500 -1.562500 -9.600000 57 49 29 
3.375000 -1.562500 -9.600000 57 50 30 
3.437500 -1.562500 -9.600000 59 52 30 
3.500000 -1.562500 -9.600000 60 53 31 
3.562500 -1.562500 -9.600000 63 55 32 
3.625000 -1.562500 -9.600000 67 60 35 
3.687500 -1.562500 -9.600000 80 76 46 
3.750000 -1.562500 -9.600000 94 89 60 
3.812500 -1.562500 -9.600000 75 68 43 
3.875000 -1.562500 -9.600000 65 59 35 
3.937500 -1.562500 -9.600000 72 69 44 
4.000000 -1.562500 -9.600000 67 61 39 
4.062500 -1.562500 -9.600000 56 48 27 
4.125000 -1.562500 -9.600000 50 44 25 
4.187500 -1.562500 -9.600000 45 40 23 
4.250000 -1.562500 -9.600000 49 44 25 
4.312500 -1.562500 -9.600000 51 45 25 
4.375000 -1.562500 -9.600000 53 46 26 
4.437500 -1.562500 -9.600000 56 49 28 
4.500000 -1.562500 -9.600000 58 50 29 
4.562500 -1.562500 -9.600000 57 50 29 
4.625000 -1.562500 -9.600000 58 51 29 
4.687500 -1.562500 -9.600000 58 51 30 
4.750000 -1.562500 -9.600000 58 51 30 
4.812500 -1.562500 -9.600000 57 50 29 
4.875000 -1.562500 -9.600000 55 49 28 
4.937500 -1.562500 -9.600000 55 48 28 
5.000000 -1.562500 -9.600000 56 49 29 
5.062500 -1.562500 -9.600000 57 50 30 
5.125000 -1.562500 -9.600000 58 50 31 
5.187500 -1.562500 -9.600000 57 50 32 
5.250000 -1.562500 -9.600000 58 51 33 
1.000000 -1.625000 -9.600000 32 30 16 
1.062500 -1.625000 -9.600000 31 29 16 
1.125000 -1.625000 -9.600000 31 29 16 
1.187500 -1.625000 -9.600000 32 30 16 
1.250000 -1.625000 -9.600000 31 30 16 
1.312500 -1.625000 -9.600000 30 30 16 
1.375000 -1.625000 -9.600000 30 29 16 
1.437500 -1.625000 -9.600000 31 29 16 
1.500000 -1.625000 -9.600000 32 30 16 
1.562500 -1.625000 -9.600000 33 29 17 
1.625000 -1.625000 -9.600000 33 30 16 
1.687500 -1.625000 -9.600000 33 30 16 
1.750000 -1.625000 -9.600000 34 30 16 
1.812500 -1.625000 -9.600000 34 30 15 
1.875000 -1.625000 -9.600000 34 30 16 
1.937500 -1.625000 -9.600000 33 30 16 
2.000000 -1.625000 -9.600000 34 30 16 
2.062500 -1.625000 -9.600000 33 29 15 
2.125000 -1.625000 -9.600000 31 28 15 
2.187500 -1.625000 -9.600000 27 25 14 
2.250000 -1.625000 -9.600000 27 26 15 
2.312500 -1.625000 -9.600000 33 29 16 
2.375000 -1.625000 -9.600000 33 28 16 
2.437500 -1.625000 -9.600000 34 29 15 
2.500000 -1.625000 -9.600000 45 37 19 
2.562500 -1.625000 -9.600000 65 49 25 
2.625000 -1.625000 -9.600000 74 54 27 
2.687500 -1.625000 -9.600000 76 56 28 
2.750000 -1.625000 -9.600000 78 58 30 
2.812500 -1.625000 -9.600000 78 59 30 
2.875000 -1.625000 -9.600000 78 59 30 
2.937500 -1.625000 -9.600000 78 59 30 
3.000000 -1.625000 -9.600000 77 58 30 
3.062500 -1.625000 -9.600000 75 57 30 
3.125000 -1.625000 -9.600000 75 57 30 
3.187500 -1.625000 -9.600000 75 58 30 
3.250000 -1.625000 -9.600000 76 60 31 
3.312500 -1.625000 -9.600000 78 61 31 
3.375000 -1.625000 -9.600000 78 60 32 
3.437500 -1.625000 -9.600000 77 59 31 
3.500000 -1.625000 -9.600000 77 59 31 
3.562500 -1.625000 -9.600000 78 60 31 
3.625000 -1.625000 -9.600000 78 60 31 
3.687500 -1.625000 -9.600000 78 61 32 
3.750000 -1.625000 -9.600000 79 61 34 
3.812500 -1.625000 -9.600000 77 59 32 
3.875000 -1.625000 -9.600000 75 57 30 
3.937500 -1.625000 -9.600000 73 56 30 
4.000000 -1.625000 -9.600000 73 56 29 
4.062500 -1.625000 -9.600000 73 55 28 
4.125000 -1.625000 -9.600000 73 55 27 
4.187500 -1.625000 -9.600000 72 55 28 
4.250000 -1.625000 -9.600000 72 54 28 
4.312500 -1.625000 -9.600000 74 56 29 
4.375000 -1.625000 -9.600000 75 57 30 
4.437500 -1.625000 -9.600000 75 57 29 
4.500000 -1.625000 -9.600000 75 56 28 
4.562500 -1.625000 -9.600000 74 56 28 
4.625000 -1.625000 -9.600000 72 55 28 
4.687500 -1.625000 -9.600000 71 54 27 
4.750000 -1.625000 -9.600000 70 53 26 
4.812500 -1.625000 -9.600000 70 53 26 
4.875000 -1.625000 -9.600000 71 54 27 
4.937500 -1.625000 -9.600000 74 55 27 
5.000000 -1.625000 -9.600000 75 56 28 
5.062500 -1.625000 -9.600000 77 57 29 
5.125000 -1.625000 -9.600000 76 58 30 
5.187500 -1.625000 -9.600000 73 57 31 
5.250000 -1.625000 -9.600000 73 56 31 
1.000000 -1.687500 -9.600000 32 29 15 
1.062500 -1.687500 -9.600000 32 29 15 
1.125000 -1.687500 -9.600000 31 29 15 
1.187500 -1.687500 -9.600000 32 29 15 
1.250000 -1.687500 -9.600000 32 29 15 
1.312500 -1.687500 -9.600000 32 29 15 
1.375000 -1.687500 -9.600000 32 30 15 
1.437500 -1.687500 -9.600000 32 29 16 
1.500000 -1.687500 -9.600000 33 29 16 
1.562500 -1.687500 -9.600000 33 29 16 
1.625000 -1.687500 -9.600000 33 29 15 
1.687500 -1.687500 -9.600000 34 29 16 
1.750000 -1.687500 -9.600000 34 30 16 
1.812500 -1.687500 -9.600000 34 30 15 
1.875000 -1.687500 -9.600000 34 30 15 
1.937500 -1.687500 -9.600000 34 29 15 
2.000000 -1.687500 -9.600000 35 30 15 
2.062500 -1.687500 -9.600000 35 30 16 
2.125000 -1.687500 -9.600000 33 28 15 
2.187500 -1.687500 -9.600000 27 25 14 
2.250000 -1.687500 -9.600000 26 24 13 
2.312500 -1.687500 -9.600000 31 27 15 
2.375000 -1.687500 -9.600000 32 28 15 
2.437500 -1.687500 -9.600000 32 28 15 
2.500000 -1.687500 -9.600000 37 31 15 
2.562500 -1.687500 -9.600000 56 44 21 
2.625000 -1.687500 -9.600000 75 56 27 
2.687500 -1.687500 -9.600000 82 60 30 
2.750000 -1.687500 -9.600000 82 60 30 
2.812500 -1.687500 -9.600000 81 60 30 
2.875000 -1.687500 -9.600000 81 60 30 
2.937500 -1.687500 -9.600000 81 60 29 
3.000000 -1.687500 -9.600000 80 60 30 
3.062500 -1.687500 -9.600000 79 58 29 
3.125000 -1.687500 -9.600000 77 57 28 
3.187500 -1.687500 -9.600000 77 58 29 
3.250000 -1.687500 -9.600000 78 59 29 
3.312500 -1.687500 -9.600000 79 60 29 
3.375000 -1.687500 -9.600000 80 60 31 
3.437500 -1.687500 -9.600000 80 60 31 
3.500000 -1.687500 -9.600000 80 60 30 
3.562500 -1.687500 -9.600000 79 60 30 
3.625000 -1.687500 -9.600000 79 60 31 
3.687500 -1.687500 -9.600000 78 58 29 
3.750000 -1.687500 -9.600000 79 60 30 
3.812500 -1.687500 -9.600000 80 60 30 
3.875000 -1.687500 -9.600000 80 59 29 
3.937500 -1.687500 -9.600000 80 59 28 
4.000000 -1.687500 -9.600000 80 59 28 
4.062500 -1.687500 -9.600000 81 59 29 
4.125000 -1.687500 -9.600000 80 59 29 
4.187500 -1.687500 -9.600000 79 59 30 
4.250000 -1.687500 -9.600000 80 59 30 
4.312500 -1.687500 -9.600000 80 60 31 
4.375000 -1.687500 -9.600000 80 61 31 
4.437500 -1.687500 -9.600000 81 60 29 
4.500000 -1.687500 -9.600000 81 59 29 
4.562500 -1.687500 -9.600000 80 59 29 
4.625000 -1.687500 -9.600000 78 58 29 
4.687500 -1.687500 -9.600000 77 57 27 
4.750000 -1.687500 -9.600000 75 54 26 
4.812500 -1.687500 -9.600000 72 52 25 
4.875000 -1.687500 -9.600000 75 54 26 
4.937500 -1.687500 -9.600000 79 58 28 
5.000000 -1.687500 -9.600000 80 59 28 
5.062500 -1.687500 -9.600000 82 61 30 
5.125000 -1.687500 -9.600000 82 62 32 
5.187500 -1.687500 -9.600000 84 65 35 
5.250000 -1.687500 -9.600000 89 70 41 
1.000000 -1.750000 -9.600000 33 30 16 
1.062500 -1.750000 -9.600000 33 30 16 
1.125000 -1.750000 -9.600000 32 30 16 
1.187500 -1.750000 -9.600000 32 29 16 
1.250000 -1.750000 -9.600000 32 29 16 
1.312500 -1.750000 -9.600000 32 30 16 
1.375000 -1.750000 -9.600000 33 30 15 
1.437500 -1.750000 -9.600000 33 30 16 
1.500000 -1.750000 -9.600000 34 30 16 
1.562500 -1.750000 -9.600000 34 30 15 
1.625000 -1.750000 -9.600000 34 30 15 
1.687500 -1.750000 -9.600000 34 31 16 
1.750000 -1.750000 -9.600000 35 31 16 
1.812500 -1.750000 -9.600000 34 30 16 
1.875000 -1.750000 -9.600000 35 30 16 
1.937500 -1.750000 -9.600000 36 31 16 
2.000000 -1.750000 -9.600000 37 31 16 
2.062500 -1.750000 -9.600000 37 32 16 
2.125000 -1.750000 -9.600000 38 32 16 
2.187500 -1.750000 -9.600000 38 31 15 
2.250000 -1.750000 -9.600000 34 29 14 
2.312500 -1.750000 -9.600000 32 27 14 
2.375000 -1.750000 -9.600000 32 28 15 
2.437500 -1.750000 -9.600000 33 29 15 
2.500000 -1.750000 -9.600000 35 31 15 
2.562500 -1.750000 -9.600000 44 37 17 
2.625000 -1.750000 -9.600000 63 50 24 
2.687500 -1.750000 -9.600000 78 59 29 
2.750000 -1.750000 -9.600000 83 62 31 
2.812500 -1.750000 -9.600000 83 62 31 
2.875000 -1.750000 -9.600000 83 62 30 
2.937500 -1.750000 -9.600000 83 62 30 
3.000000 -1.750000 -9.600000 82 63 31 
3.062500 -1.750000 -9.600000 82 61 31 
3.125000 -1.750000 -9.600000 81 60 31 
3.187500 -1.750000 -9.600000 80 60 31 
3.250000 -1.750000 -9.600000 80 61 31 
3.312500 -1.750000 -9.600000 80 61 31 
3.375000 -1.750000 -9.600000 82 62 33 
3.437500 -1.750000 -9.600000 82 62 33 
3.500000 -1.750000 -9.600000 82 61 32 
3.562500 -1.750000 -9.600000 80 61 31 
3.625000 -1.750000 -9.600000 80 60 31 
3.687500 -1.750000 -9.600000 80 60 30 
3.750000 -1.750000 -9.600000 81 61 31 
3.812500 -1.750000 -9.600000 81 61 31 
3.875000 -1.750000 -9.600000 81 61 30 
3.937500 -1.750000 -9.600000 82 61 30 
4.000000 -1.750000 -9.600000 82 61 30 
4.062500 -1.750000 -9.600000 81 61 30 
4.125000 -1.750000 -9.600000 81 61 31 
4.187500 -1.750000 -9.600000 81 62 31 
4.250000 -1.750000 -9.600000 81 61 31 
4.312500 -1.750000 -9.600000 80 61 31 
4.375000 -1.750000 -9.600000 81 62 31 
4.437500 -1.750000 -9.600000 81 61 31 
4.500000 -1.750000 -9.600000 82 61 30 
4.562500 -1.750000 -9.600000 82 61 30 
4.625000 -1.750000 -9.600000 82 62 30 
4.687500 -1.750000 -9.600000 82 61 29 
4.750000 -1.750000 -9.600000 80 59 28 
4.812500 -1.750000 -9.600000 77 56 26 
4.875000 -1.750000 -9.600000 77 56 27 
4.937500 -1.750000 -9.600000 80 59 28 
5.000000 -1.750000 -9.600000 83 61 29 
5.062500 -1.750000 -9.600000 83 61 30 
5.125000 -1.750000 -9.600000 81 61 30 
5.187500 -1.750000 -9.600000 84 66 35 
5.250000 -1.750000 -9.600000 92 76 47 
1.000000 -1.812500 -9.600000 33 30 17 
1.062500 -1.812500 -9.600000 33 31 17 
1.125000 -1.812500 -9.600000 33 31 16 
1.187500 -1.812500 -9.600000 33 30 16 
1.250000 -1.812500 -9.600000 33 30 16 
1.312500 -1.812500 -9.600000 33 30 16 
1.375000 -1.812500 -9.600000 33 30 16 
1.437500 -1.812500 -9.600000 33 30 15 
1.500000 -1.812500 -9.600000 34 30 16 
1.562500 -1.812500 -9.600000 34 31 16 
1.625000 -1.812500 -9.600000 34 31 15 
1.687500 -1.812500 -9.600000 35 31 16 
1.750000 -1.812500 -9.600000 36 31 17 
1.812500 -1.812500 -9.600000 35 31 15 
1.875000 -1.812500 -9.600000 36 32 16 
1.937500 -1.812500 -9.600000 36 32 16 
2.000000 -1.812500 -9.600000 37 33 16 
2.062500 -1.812500 -9.600000 39 33 17 
2.125000 -1.812500 -9.600000 40 34 17 
2.187500 -1.812500 -9.600000 40 33 16 
2.250000 -1.812500 -9.600000 37 31 15 
2.312500 -1.812500 -9.600000 34 29 15 
2.375000 -1.812500 -9.600000 33 29 15 
2.437500 -1.812500 -9.600000 33 29 15 
2.500000 -1.812500 -9.600000 34 30 15 
2.562500 -1.812500 -9.600000 37 32 16 
2.625000 -1.812500 -9.600000 44 38 18 
2.687500 -1.812500 -9.600000 62 50 24 
2.750000 -1.812500 -9.600000 79 61 31 
2.812500 -1.812500 -9.600000 84 63 32 
2.875000 -1.812500 -9.600000 84 63 32 
2.937500 -1.812500 -9.600000 84 63 33 
3.000000 -1.812500 -9.600000 84 64 33 
3.062500 -1.812500 -9.600000 84 64 34 
3.125000 -1.812500 -9.600000 84 64 34 
3.187500 -1.812500 -9.600000 82 62 33 
3.250000 -1.812500 -9.600000 82 63 33 
3.312500 -1.812500 -9.600000 82 64 34 
3.375000 -1.812500 -9.600000 84 65 37 
3.437500 -1.812500 -9.600000 85 65 37 
3.500000 -1.812500 -9.600000 83 63 35 
3.562500 -1.812500 -9.600000 82 62 33 
3.625000 -1.812500 -9.600000 81 62 33 
3.687500 -1.812500 -9.600000 81 61 32 
3.750000 -1.812500 -9.600000 82 61 31 
3.812500 -1.812500 -9.600000 82 62 32 
3.875000 -1.812500 -9.600000 81 61 32 
3.937500 -1.812500 -9.600000 81 61 31 
4.000000 -1.812500 -9.600000 81 61 31 
4.062500 -1.812500 -9.600000 81 60 31 
4.125000 -1.812500 -9.600000 81 61 31 
4.187500 -1.812500 -9.600000 82 62 31 
4.250000 -1.812500 -9.600000 81 61 31 
4.312500 -1.812500 -9.600000 80 61 31 
4.375000 -1.812500 -9.600000 80 61 30 
4.437500 -1.812500 -9.600000 81 61 30 
4.500000 -1.812500 -9.600000 81 60 30 
4.562500 -1.812500 -9.600000 82 61 30 
4.625000 -1.812500 -9.600000 82 61 29 
4.687500 -1.812500 -9.600000 82 60 29 
4.750000 -1.812500 -9.600000 80 58 28 
4.812500 -1.812500 -9.600000 77 56 26 
4.875000 -1.812500 -9.600000 78 57 27 
4.937500 -1.812500 -9.600000 78 57 27 
5.000000 -1.812500 -9.600000 80 58 27 
5.062500 -1.812500 -9.600000 81 59 28 
5.125000 -1.812500 -9.600000 79 59 28 
5.187500 -1.812500 -9.600000 78 60 30 
5.250000 -1.812500 -9.600000 82 65 36 
1.000000 -1.875000 -9.600000 32 30 17 
1.062500 -1.875000 -9.600000 33 30 16 
1.125000 -1.875000 -9.600000 33 30 16 
1.187500 -1.875000 -9.600000 33 30 16 
1.250000 -1.875000 -9.600000 33 30 16 
1.312500 -1.875000 -9.600000 33 30 17 
1.375000 -1.875000 -9.600000 33 30 17 
1.437500 -1.875000 -9.600000 33 30 16 
1.500000 -1.875000 -9.600000 34 30 16 
1.562500 -1.875000 -9.600000 34 30 16 
1.625000 -1.875000 -9.600000 34 30 15 
1.687500 -1.875000 -9.600000 34 31 16 
1.750000 -1.875000 -9.600000 36 31 17 
1.812500 -1.875000 -9.600000 35 31 16 
1.875000 -1.875000 -9.600000 36 32 16 
1.937500 -1.875000 -9.600000 37 33 16 
2.000000 -1.875000 -9.600000 37 33 17 
2.062500 -1.875000 -9.600000 38 34 17 
2.125000 -1.875000 -9.600000 39 33 17 
2.187500 -1.875000 -9.600000 38 33 16 
2.250000 -1.875000 -9.600000 36 31 16 
2.312500 -1.875000 -9.600000 34 30 16 
2.375000 -1.875000 -9.600000 34 30 16 
2.437500 -1.875000 -9.600000 34 30 16 
2.500000 -1.875000 -9.600000 34 30 16 
2.562500 -1.875000 -9.600000 35 31 15 
2.625000 -1.875000 -9.600000 37 33 16 
2.687500 -1.875000 -9.600000 48 41 20 
2.750000 -1.875000 -9.600000 70 56 29 
2.812500 -1.875000 -9.600000 82 63 33 
2.875000 -1.875000 -9.600000 84 65 34 
2.937500 -1.875000 -9.600000 84 64 33 
3.000000 -1.875000 -9.600000 84 64 34 
3.062500 -1.875000 -9.600000 84 65 35 
3.125000 -1.875000 -9.600000 83 65 35 
3.187500 -1.875000 -9.600000 83 64 34 
3.250000 -1.875000 -9.600000 83 65 34 
3.312500 -1.875000 -9.600000 84 66 35 
